ply
format ascii 1.0
comment PCL generated
element vertex 1035
property float x
property float y
property float z
property uchar red
property uchar green
property uchar blue
element camera
property float view_px
property float view_py
property float view_pz
property float x_axisx
property float x_axisy
property float x_axisz
property float y_axisx
property float y_axisy
property float y_axisz
property float z_axisx
property float z_axisy
property float z_axisz
property float focal
property float scalex
property float scaley
property float centerx
property float centery
property int viewportx
property int viewporty
property float k1
property float k2
end_header
-0.70744526 -0.52069634 5.4292264 9.2073381e-39
-3.6382163 -0.50372219 5.5658135 1.0411294e-38
3.1215706 -0.5591948 6.0001407 1.1330363e-38
1.2772291 -0.45323125 5.4942284 7.6378431e-39
0.22628713 -0.4601689 5.4250112 8.7405936e-39
-3.0088694 -0.46879894 5.649725 1.0502397e-38
-0.00055315264 -0.44182372 5.4258699 8.8324207e-39
1.3116101 -0.38471895 5.4761624 6.0733915e-39
2.5162933 -0.3725026 5.996839 9.949589e-39
0.8475129 -0.32988524 5.6275468 1.4086867e-38
-3.1922436 -0.32197604 5.6592178 9.581531e-39
-0.95046788 -0.28520972 5.3899498 9.3895643e-39
0.10079631 -0.28657904 5.4409051 1.0402281e-38
-1.8685054 -0.25997716 5.5515428 7.0843036e-39
-1.3808525 -0.25775835 5.5001488 1.1505744e-38
-0.71942461 -0.21993713 5.6161847 7.0817939e-39
2.4738643 -0.25278857 6.0232058 1.1423635e-38
2.7580256 -0.25716931 6.0197654 1.0224738e-38
3.8879645 -0.29263175 6.5063763 9.6722861e-39
3.7827759 -0.25569016 6.2750525 1.0041069e-38
-3.3202136 -0.216599 5.6249199 1.0501678e-38
-3.2993479 -0.134152 5.6521754 1.0504206e-38
1.5032909 -0.084666215 4.9206853 1.3625889e-38
2.818887 -0.11389386 6.0242124 7.0926007e-39
0.26790795 -0.050267186 5.4403739 1.0219325e-38
1.2306472 -0.047573235 5.5727706 8.8367605e-39
-3.4660833 0.033398505 5.5066872 9.6726364e-39
-3.5980761 0.062337816 5.394208 8.6628229e-39
-2.9732561 0.080494657 5.671093 7.6461416e-39
-0.66047388 0.10143507 5.3366632 6.4367762e-39
-0.49276468 0.12041467 5.2180829 6.5318515e-39
-0.038123131 0.12942322 5.3037329 8.7438278e-39
2.5413332 0.17819871 6.0615973 1.1238522e-38
-3.5671468 0.16233528 5.5026941 5.8040339e-39
-2.9048944 0.20052004 5.6648264 9.8563074e-39
0.31577539 0.20217842 5.4645667 1.2058203e-38
-2.951396 0.20545748 5.6826 1.0593152e-38
0.4125298 0.26123971 5.2153263 1.1964925e-38
0.64279467 0.27623782 5.6585231 1.2794678e-38
-0.6263777 0.18865418 2.7796657 1.049015e-38
0.14405403 0.28930652 5.3721137 1.2889034e-38
-3.677824 0.30311075 5.5235791 8.9376147e-39
-0.61989331 0.40060937 5.2871351 1.4268375e-38
0.061767429 0.38373795 5.2611051 1.5099217e-38
-2.9562173 0.41838336 5.6526518 8.47734e-39
-0.61635637 0.41773191 5.2944679 1.2885445e-38
0.13735786 0.39661878 4.3772821 1.3255667e-38
-1.5762717 0.42687577 5.0987363 9.4814068e-39
0.14114413 0.57409024 6.7573185 1.34415e-38
0.60296613 0.47796679 5.1977329 1.279685e-38
-3.3799486 0.59861594 5.4594278 7.3720827e-39
-0.16477875 0.59067166 5.139442 1.0314416e-38
-2.0427575 0.57837903 5.0000014 5.7118102e-39
-0.7502529 0.59756124 5.0974884 1.0131106e-38
-2.0413051 0.58406872 4.9877081 5.7114571e-39
-1.3165916 0.59723806 5.0433874 1.0497728e-38
-0.35569865 0.60565549 5.1367168 1.0038553e-38
-2.9831069 0.67657554 5.6515923 7.3709925e-39
-3.0393307 0.71339601 5.6515694 6.5412332e-39
-0.63651276 0.71416098 5.0788431 9.296661e-39
0.32171041 0.7341435 5.2076368 1.2429509e-38
-3.4798079 0.74918371 5.5502019 9.2149177e-39
-0.88658249 0.73041385 5.1048613 1.3165279e-38
-0.2255926 0.73025423 5.0681896 1.3257831e-38
-0.063984357 0.73836988 5.1187582 1.3076322e-38
-0.10200871 0.75025702 5.0091634 1.3257831e-38
-3.1575944 0.7991879 5.5575595 7.1869656e-39
-2.1244104 0.74323994 4.989944 9.1144081e-39
-2.9656272 0.88161671 5.5740685 9.7641118e-39
-3.6720879 0.8854925 5.4977355 8.6628355e-39
-2.963536 0.89200705 5.5703049 1.0500954e-38
-3.1956193 1.0708102 5.6053162 9.3049427e-39
-3.3967659 1.1202894 5.5400319 9.3978572e-39
-3.2148261 1.1412472 5.5852213 7.9227243e-39
-0.20139237 0.96631813 3.6414211 1.0771067e-38
-3.12274 1.3976072 5.6116328 6.9085612e-39
-2.1392462 1.2746286 4.9181824 7.6425207e-39
-2.0424027 1.3316063 4.9216728 5.1561183e-39
-3.5963452 1.5298181 5.4694204 9.4003655e-39
-3.5626223 1.5066463 5.3617606 9.6769552e-39
-2.1984189 1.5821208 4.8294182 4.421426e-39
0.52551031 1.8027071 5.108469 1.3349672e-38
0.63374394 1.9176619 5.293982 1.4551096e-38
0.085098043 3.4320691 9.6180763 1.3724575e-38
2.8752952 -2.565033 5.9132056 1.0870108e-38
2.2976065 -2.4093721 5.8923554 1.096627e-38
2.9521191 -2.3795528 5.9381557 1.087227e-38
2.8413017 -2.335674 5.8348441 1.0872273e-38
2.9154353 -2.3366702 5.8922329 1.1241055e-38
-0.15240273 -1.9920772 5.4190264 1.0677426e-38
2.6768508 -2.3357937 6.3736095 7.737617e-39
-0.88479429 -1.8478502 5.1849327 1.0861818e-38
2.0352201 -2.049417 5.9326363 1.0777912e-38
2.3061795 -1.975886 5.9454913 1.0593525e-38
2.5363154 -1.9385145 5.9625206 1.1331089e-38
2.7262239 -1.930959 5.9488869 1.0964465e-38
0.88879919 -1.640057 5.2916784 8.5615987e-39
-0.082512774 -1.5826675 5.2934418 1.076781e-38
-2.9459465 -1.6914731 5.7844052 1.1791344e-38
3.4181645 -1.7807231 6.0576043 1.1239973e-38
-2.1003015 -1.667859 5.7940025 1.1146694e-38
-1.9418302 -1.6875178 5.8702521 1.0039261e-38
2.4260004 -1.7069024 5.8895431 1.2715458e-38
-1.308018 -1.491902 5.4547262 5.5202177e-39
-0.60894662 -1.2877438 5.1912088 8.9264254e-39
-2.5479486 -1.403774 5.74439 9.5800849e-39
2.7806411 -1.395234 5.9399304 1.0961583e-38
-2.7832239 -1.2534617 5.7589321 1.0592795e-38
2.0256321 -1.1971803 6.0169015 1.1145974e-38
2.7165539 -1.1398335 5.8851299 1.1883539e-38
0.89226156 -1.0675471 5.5187593 5.3358293e-39
-2.2411234 -1.0360283 5.7309337 1.1144529e-38
-2.9624085 -0.98928303 5.7832489 8.2889859e-39
0.69359988 -0.93174976 5.6341691 1.1966003e-38
2.8623598 -0.97259098 5.8259382 1.0319099e-38
3.044812 -1.0124617 6.0245409 1.1517642e-38
2.6679358 -0.95169294 5.8563571 1.1517638e-38
-0.47143388 -0.89945078 5.5522919 6.1659515e-39
2.5320911 -0.93581235 6.044353 1.0778279e-38
2.567328 -0.94404656 6.087193 9.9481555e-39
-0.80463684 -0.20838495 1.7561764 1.1607301e-38
0.087188862 -0.76509494 5.3807368 8.926061e-39
-2.6857913 -0.60647017 4.4651346 9.7659208e-39
0.99926347 -0.65632957 5.69943 1.0309363e-38
-3.531688 -0.61993772 5.6309566 1.0042512e-38
-0.77265674 -0.54242724 5.4096041 9.7605118e-39
-0.23833774 -0.52978581 5.4283614 1.1146284e-38
-2.916225 -0.32054737 5.7005796 7.3684827e-39
3.7775009 -0.28756425 6.3946681 9.3956992e-39
-0.28955156 -0.18497427 5.365891 1.6962554e-38
1.0164951 -0.15972953 5.6594863 1.0676702e-38
1.0080309 -0.14883217 5.6430082 9.9391382e-39
3.0585146 -0.098283902 5.9684486 1.2899849e-38
3.1694577 -0.022845887 6.1712914 1.2344515e-38
-3.5863564 0.072608218 5.3596749 8.6613838e-39
0.63369691 0.095365666 5.621376 1.1323159e-38
-3.6220915 0.17750859 5.5383382 8.1089247e-39
-3.1528063 0.28807598 5.6256394 7.8305315e-39
-0.57009745 0.33835489 5.2989659 1.2795768e-38
-1.730857 0.34514892 5.3371758 1.2519178e-38
0.013497347 0.33414307 5.169045 1.3625528e-38
-2.0897405 0.40844059 4.9940429 8.1938882e-39
-0.62970334 0.43032432 5.2175999 1.2334065e-38
-3.2456141 0.47916254 5.6191421 8.4755352e-39
-0.7995953 0.71453547 3.6913271 1.3444737e-38
-2.126071 0.8930096 4.7559314 3.6820645e-39
-0.14484824 0.74044538 3.6258626 1.0123529e-38
-0.91406977 0.9540292 4.9853315 9.5717934e-39
-1.1783328 -0.37875202 -2.6143861 1.2162287e-38
0.38831767 1.2863728 5.8123546 9.8487334e-39
-0.83374816 1.0538204 4.7809725 9.2048059e-39
-3.1309617 1.218184 5.4343534 8.1092736e-39
-3.3477733 1.5091387 5.3947082 9.2170519e-39
0.30369169 1.6606363 4.7087622 1.2798294e-38
0.10670494 1.8320469 5.0805359 1.5012074e-38
-0.36448672 1.4166315 3.8283942 1.4918436e-38
0.33317494 1.0718406 2.3049264 9.5746786e-39
3.3326809 -2.4788163 5.9077649 1.0225105e-38
2.3325324 -2.4305944 5.9360428 1.1059182e-38
2.981148 -2.3979645 5.9860969 1.1700951e-38
5.0771604 -3.7806437 9.8176956 1.1148857e-38
2.0333271 -2.0357783 5.9428124 1.1792067e-38
1.8693904 -1.9448755 5.8363953 1.1054499e-38
2.3062546 -1.9800913 5.9464731 1.1146699e-38
-1.0384111 -1.7407306 5.2984023 3.6809855e-39
-1.2040238 -1.7107133 5.3658342 7.4549008e-39
-2.9367146 -1.6751873 5.7269588 1.1790625e-38
1.8494695 -1.773041 5.9704547 1.1698796e-38
2.4191549 -1.7114987 5.8827033 1.2530345e-38
-0.99703205 -0.47521678 1.7782984 1.0319459e-38
-2.9264584 -1.6428806 5.6727691 1.0500602e-38
-2.2993977 -1.6865877 5.8512011 1.0499515e-38
-2.0668068 -1.6540638 5.7538915 1.123889e-38
2.075141 -1.7279392 6.040453 1.1607675e-38
2.371948 -1.6717757 5.807229 1.3268632e-38
-1.3102176 -1.4870561 5.4401102 5.5202177e-39
-2.7372353 -1.4147623 5.7640014 9.7651978e-39
-0.41458541 -1.3017695 5.4869843 4.7833715e-39
1.9963745 -1.4038179 6.0112362 1.1423281e-38
2.4697523 -1.4392481 6.0683341 1.1515844e-38
0.36689267 -1.0981311 5.4515853 1.233262e-38
1.9765617 -1.1887374 5.9519877 1.1237814e-38
-2.3675601 -1.1095247 5.8216329 1.0961583e-38
2.5090504 -1.1270525 5.8791256 1.2619662e-38
-3.0290172 -1.0129187 5.7061114 1.0778631e-38
-3.5859187 -0.94532025 5.5694852 1.0320904e-38
-3.6181283 -0.96301872 5.6788311 8.6606649e-39
-2.6812842 -1.0190735 5.9166131 9.3953307e-39
0.69160891 -0.92538905 5.6289792 1.1966003e-38
2.6315849 -0.9546172 5.8801346 1.3083522e-38
-0.43038404 -0.82418293 5.4047427 6.7187637e-39
2.5082474 -0.92106843 5.9989648 9.9485156e-39
-3.6841161 -0.79969937 5.6074376 1.0319096e-38
0.095849358 -0.76950288 5.4008212 7.3601773e-39
-2.1497972 -0.64971602 5.1834493 8.465436e-39
-3.5411804 -0.62401956 5.664763 1.050385e-38
1.0011204 -0.62162149 5.6854358 1.0952571e-38
-0.77473879 -0.54252547 5.4021225 9.7605118e-39
1.2671332 -0.4485575 5.4785938 7.6378431e-39
3.3887734 -0.54522556 5.9848561 1.1514757e-38
-2.9158478 -0.32728755 5.6935525 8.7521361e-39
2.5394661 -0.37542817 6.0249519 1.1055218e-38
-3.1957805 -0.32167554 5.676465 8.843966e-39
-0.948309 -0.29083866 5.40168 8.5605267e-39
0.091639392 -0.28506544 5.4198732 1.12306e-38
-2.9078074 -0.31230828 5.6515017 7.7379841e-39
-1.8347964 -0.27090937 5.465436 6.3463785e-39
-3.386549 -0.27097183 5.6970773 8.9350714e-39
-1.3623931 -0.27474412 5.3960137 9.9384179e-39
2.7452826 -0.25562724 6.0049663 1.123889e-38
-0.29168025 -0.19668119 5.3635278 1.8253293e-38
0.76765186 -0.15628758 5.6515336 8.6498259e-39
1.252167 -0.045924481 5.6056843 9.9413004e-39
0.46671641 0.0068982397 5.686008 1.1963125e-38
0.66048217 0.097280547 5.672164 8.5583687e-39
-0.035116062 0.14210148 5.3714728 8.7438278e-39
0.30979127 0.14091785 5.435183 1.233515e-38
-2.9727585 0.20294411 5.8057775 9.8563074e-39
-2.9552932 0.20461339 5.7048163 1.0777541e-38
0.37568882 0.24418797 5.4784822 1.1689772e-38
-3.356041 0.28348875 5.6551466 8.3829864e-39
0.02081543 0.33495939 5.1856427 1.3717724e-38
-0.6139769 0.38021222 5.2648816 1.4176184e-38
0.040859967 0.37893152 5.2786131 1.5007021e-38
-1.5667619 0.60560644 6.9770131 1.2430948e-38
-3.4799433 0.62366349 5.6661782 7.0962119e-39
-2.0418472 0.57891369 4.9956021 5.6206992e-39
-0.1633974 0.59764433 5.1414785 1.022222e-38
0.21171887 0.58794904 5.1469417 9.3020588e-39
-3.0406573 0.70913625 5.6555681 5.7114725e-39
-3.4932866 0.758641 5.5590944 8.846138e-39
-1.0215799 0.62676966 4.2827878 1.0494125e-38
-0.62926435 0.71325964 5.1168399 9.7590811e-39
0.31151187 0.73601371 5.1864347 1.2429509e-38
-1.9362088 0.70129907 4.9977021 1.0403713e-38
-0.86912191 0.74136221 5.1731286 1.2796852e-38
-0.22264245 0.72937512 5.076014 1.3257831e-38
-3.2346725 0.79708022 5.6677942 7.8326909e-39
-2.9658418 0.88953006 5.5803647 1.0317286e-38
-3.6702628 0.89105576 5.4943724 7.6497598e-39
-3.2251384 0.97770333 5.6303244 1.0132168e-38
-0.79616612 0.707488 3.7008157 1.2624729e-38
-3.0580442 1.0342709 5.6004267 7.1858669e-39
0.39406732 1.2817783 5.8257003 9.0189755e-39
-3.134311 1.2221624 5.4503837 7.9245222e-39
-3.1164544 1.3915306 5.5817552 6.9085612e-39
-2.1392691 1.2770581 4.924623 6.9989491e-39
1.4539986 1.3125889 3.7365406 5.8122946e-39
-0.86424559 -1.9002581 5.2682948 1.0124969e-38
2.5530682 -1.9404938 5.9472528 1.0594604e-38
-2.0407829 -1.9014844 5.9272661 1.1331442e-38
-0.82821804 -1.5597347 5.2407951 1.3532977e-38
-2.3414886 -1.4933944 5.7605147 8.6595747e-39
-1.3992417 -1.2607967 5.2774177 1.0493038e-38
2.3445318 -1.4312034 5.9279332 1.1055221e-38
-0.32223326 -1.2610226 5.4398499 5.4265773e-39
-0.84073263 -1.0372355 5.3222656 1.1507903e-38
1.4827281 -1.0720116 5.5751915 1.1514754e-38
-1.3165498 -0.89723927 5.5502028 1.0767816e-38
-3.6576622 -0.79604131 5.5195861 1.0411655e-38
1.3694683 -0.78649414 5.4095349 1.2804774e-38
-3.012073 -0.74727219 5.671948 1.0225091e-38
-2.9470887 -0.75019664 5.6424956 9.2109394e-39
2.7438323 -0.81279856 6.03298 1.1147411e-38
-3.0122654 -0.73290837 5.681191 8.6599236e-39
0.1374075 -0.68047613 5.402391 1.1228791e-38
0.98895502 -0.6982367 5.6969953 8.9307554e-39
-2.8812721 -0.64805233 5.7086864 9.8559557e-39
-3.3588777 -0.53968829 5.6867433 9.8613647e-39
-2.7402148 -0.50824761 5.7911224 1.0039624e-38
2.6044078 -0.54685289 6.0170102 1.160695e-38
0.13458811 -0.43880874 5.4377542 9.3920852e-39
-0.48643547 -0.37439248 5.4968128 4.5064147e-39
-0.095050931 -0.35520974 5.3658638 6.900634e-39
-2.0539536 -0.20427354 5.5181856 5.2425518e-39
-0.82649785 -0.077681653 5.363308 1.1046206e-38
-3.224453 -0.023854127 5.6559677 8.9386741e-39
-3.5898113 0.049205881 5.8898406 8.752485e-39
0.26981601 0.098241843 5.3949842 1.1691578e-38
-1.8432149 0.089348249 5.4981446 6.7176819e-39
0.078599922 0.3376672 5.3176727 1.4086507e-38
-3.5058031 0.36795148 5.5825424 8.2991355e-39
1.098165 0.49799132 6.6137671 1.2239343e-38
-2.915868 0.48465076 5.6458907 5.986972e-39
-3.2643199 0.50110465 5.710001 9.4896899e-39
-0.0010286956 0.66350061 5.1211176 8.9289603e-39
-0.47240496 1.0135933 4.3803859 6.715161e-39
-1.5267075 1.2545149 4.6103501 8.6516349e-39
-3.0617352 1.6105299 5.466836 6.6373721e-39
2.779073 -2.4910798 6.1880536 1.0961227e-38
-0.2843309 -1.8217295 4.8225808 1.1780537e-38
2.5614281 -2.1339557 6.1384125 8.4741044e-39
1.7728769 -1.9084836 5.5965271 1.2805493e-38
-0.23437677 -1.6230358 5.5742397 8.0080606e-39
2.8163733 -1.3929375 5.8951912 1.1422561e-38
-0.79229015 -1.0383795 5.2507153 1.1414268e-38
-2.3060951 -0.98364407 5.5796151 1.1421115e-38
0.93912864 -1.0042737 5.6560845 6.1659543e-39
-0.073924996 -0.84603292 5.4644713 5.7960787e-39
-0.75479424 -0.71834642 5.3954039 6.4389398e-39
-3.4261565 -0.67469645 5.6695304 1.0318374e-38
0.1949448 -0.44606495 5.4441199 7.0857484e-39
-3.5143683 -0.46613324 5.6452689 1.0411292e-38
-0.85574567 -0.2790992 5.540626 7.7343688e-39
3.5859129 -0.22630841 6.0765333 1.0870829e-38
1.7885351 -0.11247093 5.3347106 1.1607304e-38
-3.1023333 -0.10289554 5.6640897 1.0041419e-38
-3.5016119 0.050629005 5.5741668 1.0133259e-38
-0.29562628 0.097417988 5.2745242 5.2443497e-39
-3.2221785 0.24611631 5.6616826 7.4631881e-39
0.44731587 0.42449802 6.1352692 1.4360211e-38
-0.030060453 0.42271644 5.0582018 1.2611374e-38
0.022524053 0.43840998 5.360002 1.2980519e-38
-0.23831291 0.54820842 5.2020245 8.5601736e-39
-2.7555428 0.78102958 5.3062081 5.8969344e-39
2.4870741 0.70866501 4.2782011 1.1698058e-38
-0.88371867 0.82239038 5.0027056 1.0587752e-38
-0.23414128 1.0170867 6.2264204 6.5397759e-39
0.27177006 0.65533435 3.7475331 7.7336429e-39
-0.44565001 0.75480652 3.3515809 7.728957e-39
0.12493475 1.0153694 4.7139401 8.2824839e-39
3.1159599 1.5624403 5.8353171 9.9553596e-39
-3.40904 2.4611838 9.6969957 6.9035193e-39
0.20292367 -1.9865175 5.2458544 1.1228438e-38
-1.6448314 1.7083113 -4.3069696 1.1516199e-38
3.4535935 -1.8376235 6.0551405 1.1425444e-38
-3.1704655 -1.424558 6.0555573 9.2127485e-39
2.502197 -1.4406325 6.0810137 1.1332169e-38
2.4765224 -1.3649989 6.0141821 1.0870108e-38
1.0298864 -0.98898947 5.6448984 6.1659501e-39
3.3145633 -0.72618335 6.5664792 1.0317653e-38
-0.89680189 -0.28086349 5.5352564 1.0127129e-38
-3.3701773 -0.1657806 5.6349988 1.0503486e-38
-1.403409 0.29009303 5.1951747 1.3256743e-38
-3.3554046 0.98247719 5.4928756 7.4642797e-39
0.20129719 -1.9881623 5.2433476 1.1228438e-38
-0.25978863 -1.599508 5.5033469 7.914786e-39
-0.8384257 -0.48909542 1.9771556 1.0043227e-38
0.99315846 -0.99290794 5.4186225 5.2443497e-39
0.92834747 -0.99347675 5.6358037 7.6396424e-39
-0.039474856 -0.86991221 5.5534067 5.7960787e-39
1.375127 -0.79166549 5.4183259 1.2804774e-38
0.24486391 -0.70012522 5.6383104 9.3902902e-39
-0.32242927 -0.63504875 5.4982119 1.0868967e-38
-0.88980013 -0.55922914 5.4146452 6.5343837e-39
-2.8862548 -0.17992659 5.7365394 9.3045686e-39
-0.30404955 0.11054087 5.2477078 6.2556135e-39
-3.2353899 0.24348487 5.7192307 6.9114549e-39
-1.4033037 0.29425171 5.1927528 1.1780891e-38
0.021939356 0.4423714 5.2132206 1.3350023e-38
-0.97489142 0.65388292 4.4538226 1.2523514e-38
-0.37727624 0.86936998 3.569906 8.3757641e-39
-0.86084527 1.8968984 5.5656376 1.2429154e-38
1.1799668 -1.3571932 5.4405904 1.1514401e-38
-2.2833288 -0.88180691 5.092308 1.0500602e-38
1.4608824 -0.33615071 5.5677061 6.3481833e-39
-3.212677 -0.25948209 5.5976667 9.7680831e-39
0.073970675 0.96189332 4.9808445 9.9391368e-39
-2.9593801 1.1593232 5.3504186 8.6613656e-39
0.59607136 -0.52374339 5.4923811 1.2425542e-38
2.2792432 -0.13697845 5.8937793 9.9506652e-39
-0.3002713 -0.005463161 5.3389349 6.6337469e-39
-2.6901395 0.4979538 5.0660095 9.4878892e-39
0.00066241797 -1.9447623 4.3201718 9.296647e-39
0.37729064 -0.26157588 0.63727641 1.0593891e-38
-2.4070125 -2.6053741 6.0897117 1.1053057e-38
1.3557805 -2.5648062 5.9085741 1.133145e-38
-3.043268 -2.6027963 6.1062589 1.0408758e-38
-3.9824286 -2.6272924 6.2530184 8.0134808e-39
-0.29958579 -1.8374496 4.3751616 6.9924737e-39
-4.2712779 -2.5383141 6.1005845 1.1055221e-38
-0.2141951 -1.9856451 4.7469373 7.6389221e-39
-0.079113282 -2.2004588 5.277679 7.177944e-39
0.099187262 -1.8285068 4.3865228 7.0846694e-39
0.60798091 1.164871 -2.7055135 5.7038859e-39
-0.98042518 -2.1944237 5.329741 4.2319998e-39
-2.2158134 -2.4565332 6.0788922 1.1883183e-38
-0.61412233 -2.2826445 5.7339606 9.0197098e-39
3.3592858 -2.4268076 6.1171703 1.2345242e-38
2.7351851 -2.3754249 6.0382566 9.4878948e-39
-0.097911939 -2.0463963 5.3267851 6.9038822e-39
-3.3908596 -2.2914038 6.0844088 1.0592079e-38
1.3099644 -2.2690306 6.0169697 1.2346321e-38
-4.1872773 -2.409472 6.4319329 1.2436357e-38
-2.0712571 -2.3097198 6.1669645 1.1883174e-38
-1.8921642 -2.2824142 6.1002622 1.2341989e-38
0.63419062 -0.89575726 2.3845649 1.1424003e-38
2.8701172 -2.2725275 6.0450368 1.1793504e-38
2.0634909 -2.2506545 6.0701585 1.0409848e-38
1.2176963 -2.2093554 6.0318227 1.1697702e-38
0.4073121 -0.18730181 0.58268505 1.4388702e-38
0.24597867 -1.8370181 5.2357855 1.1966007e-38
2.7153637 -2.2955925 6.4867463 1.123889e-38
-2.406985 -2.1408975 6.1295528 1.1237448e-38
2.8791955 -2.110239 6.051518 1.1333611e-38
-3.8780122 -2.1616478 6.2822943 6.1684836e-39
-3.1894755 -2.1289473 6.159606 7.0926007e-39
3.233175 -2.0649862 6.0310569 1.1794226e-38
1.9989331 -2.0514102 6.0610414 1.0870464e-38
0.0919495 -0.84498554 2.517786 8.1924603e-39
1.7083905 -2.0274398 6.0355206 1.2067928e-38
-3.4522979 -2.054702 6.2525525 1.0960141e-38
-3.1655872 -1.9802387 6.1176844 1.1145253e-38
-2.4032545 -2.0041018 6.2239699 1.0501678e-38
0.92937928 -1.7392437 5.4254913 8.7441907e-39
2.1371655 -1.9154489 5.9372439 1.1053776e-38
-3.5746887 -2.4922545 7.7921896 1.0500957e-38
-3.7251339 -1.9077224 6.1920805 9.2120212e-39
-1.2774446 -1.7214675 5.5815964 8.746713e-39
-0.96079111 -1.6256642 5.2970767 7.1797391e-39
-4.317112 -1.826985 6.0884771 1.0503486e-38
-1.3391924 -1.7496574 5.7314086 7.5470908e-39
-0.15197566 -1.6383445 5.4673719 1.1136962e-38
3.4009488 -1.8191776 6.0329442 1.1609838e-38
-3.5620534 -1.8436596 6.2298765 1.0135068e-38
-1.3407116 -1.6453243 5.5519338 7.9169524e-39
1.7414443 -1.8164124 6.0811553 1.1514401e-38
-0.028788161 -1.6104245 5.4394231 1.0858567e-38
-0.1808008 -1.6104046 5.4872336 1.1873087e-38
1.821131 -1.7682235 6.018218 1.1974662e-38
2.6356316 -1.7738005 6.0232844 1.3175351e-38
-1.5022438 -1.5771095 5.512527 8.3786494e-39
0.89787602 -1.5630513 5.4773097 9.9405773e-39
-3.024605 -1.7501014 6.2150087 9.4875263e-39
-2.845458 -1.7222142 6.1076498 1.0592433e-38
3.261965 -1.7078735 6.0005736 1.0688244e-38
-2.9377515 -1.7065852 6.0795221 1.0225091e-38
0.58668715 -1.5498496 5.5746698 7.4548952e-39
0.82718456 -1.534412 5.4919763 5.9811959e-39
-4.4243426 -1.7308886 6.2561698 1.0870824e-38
0.99365312 -1.5442979 5.6408858 5.7038817e-39
-2.661747 -1.6813452 6.1464806 1.0593874e-38
1.4823852 -1.6540512 6.0207019 1.1239257e-38
1.2121253 -1.6404264 6.0135341 1.1053413e-38
1.9092557 -1.6390913 6.0104551 1.2342724e-38
0.25524682 -1.4599121 5.4235649 9.2026507e-39
2.0689774 -1.6249907 5.9992275 1.1145971e-38
-1.2196969 -1.4848353 5.6699677 8.0977395e-39
0.60464627 -1.4960063 5.6839647 8.7423858e-39
-0.43234566 -1.4300562 5.4910212 1.0771783e-38
-0.29991987 -1.4313533 5.4765573 1.2241151e-38
-0.17404713 -1.4339174 5.5121288 1.1597587e-38
-1.4186505 -1.4039314 5.6032066 1.0216445e-38
-0.04518988 -1.3704596 5.4863076 1.0310086e-38
1.8561593 -1.4565178 5.8151007 1.0872281e-38
-0.55101085 -1.3594892 5.4691958 1.2149317e-38
1.0799317 -1.4351339 5.8067555 1.0592082e-38
1.1752285 -1.5028534 6.0517454 1.1237451e-38
2.0127003 -1.5287608 6.1546869 1.1701677e-38
2.6784732 -1.4800937 5.9299321 1.1607673e-38
1.8274792 -1.4911531 6.0234842 1.1057024e-38
-1.4238217 -1.3704128 5.5940304 1.03072e-38
-1.2132692 -1.4036473 5.7972012 7.0904399e-39
0.57118654 -1.3880265 5.7073984 8.1045918e-39
2.4780209 -1.4733577 6.0311413 1.1424003e-38
1.5238609 -1.446524 6.0304432 1.1699868e-38
0.52997005 -1.3405433 5.6721406 8.9311211e-39
1.7257525 -1.4019064 5.991703 1.1423646e-38
2.5763531 -1.4113355 6.0510535 1.0318017e-38
-0.64237511 -1.2508575 5.4765334 1.1321354e-38
1.343009 -1.3506012 5.9756427 1.2158684e-38
1.5414258 -1.3521894 5.9914184 1.2067209e-38
3.2563982 -1.3189708 5.9988995 1.1977177e-38
0.054038215 -0.20329261 1.1529816 1.0674541e-38
2.5132453 -1.2256455 5.9922853 1.1053423e-38
2.1114802 -1.2168177 6.0106878 1.1792067e-38
-0.4733392 -1.1365204 5.6982641 7.4523701e-39
1.5853229 -1.1982238 5.9895134 1.2253046e-38
1.0017301 -1.0900623 5.5451708 7.3608905e-39
2.8808646 -1.1212184 5.8128114 1.243671e-38
1.651684 -1.1428659 5.9660115 1.0776826e-38
-2.7493951 -1.1339345 6.0453167 1.1788816e-38
3.1501274 -1.1201459 6.0017705 1.077647e-38
2.5021837 -1.091139 5.9671021 1.2527463e-38
2.7071326 -1.0915649 5.8622003 1.2158681e-38
3.4589996 -1.0987531 5.9706926 1.0038905e-38
0.9970814 -1.0306375 5.8028145 6.4432572e-39
1.5945272 -1.0853685 5.9769793 1.3264313e-38
1.9214565 -1.071154 5.942081 1.0406251e-38
3.2463911 -1.0717162 5.923296 1.0593524e-38
1.1230119 -0.98870683 5.5842628 8.189212e-39
0.99645495 -1.0019823 5.6856551 6.9042354e-39
-1.6691401 -1.0051152 5.768569 7.176865e-39
-0.70513946 -0.93053162 5.4315681 4.9681229e-39
0.09097559 -0.90045136 5.3179011 5.6124105e-39
-1.5195912 -0.93119085 5.7082844 7.1761363e-39
-0.89325666 -0.90191698 5.5261245 8.3750452e-39
-0.75578761 -0.83616281 5.1193342 8.1910071e-39
-3.2157669 -0.98157108 6.0865808 9.8570389e-39
-3.0126886 -1.0078861 6.3025589 1.1055215e-38
-1.4465331 -0.9134832 5.7123976 1.0677055e-38
1.0011824 -0.92109835 5.6681075 9.0197e-39
2.3533957 -0.98261559 6.0112801 1.1610198e-38
-3.8979371 -0.9793539 6.1890817 1.0228708e-38
-3.720031 -0.97119838 6.201314 1.0043228e-38
-1.6748143 -0.8782981 5.725935 9.2908905e-39
-4.4503527 -0.93336344 6.1497545 8.6595887e-39
2.0111511 -0.92111725 6.0113735 1.1791344e-38
-3.1234722 -0.89718974 6.1094394 9.9474254e-39
-1.7739788 -0.83160102 5.7008176 8.1013436e-39
-1.4088885 -0.84154749 5.6746936 9.9377004e-39
3.2310846 -0.88229561 5.9188104 1.0501325e-38
3.4806244 -0.86254776 5.9246612 1.1145974e-38
-1.6904193 -0.82910824 5.7187333 1.0581982e-38
-0.9795168 -0.79837209 5.4809775 8.4665248e-39
0.076975748 -0.79765385 5.4653368 9.4799537e-39
0.36427179 -0.77307308 5.4650798 1.0768897e-38
2.3363149 -0.88361001 5.9958534 9.5808093e-39
2.7634928 -0.87336594 5.9651723 9.4886109e-39
-3.1173539 -0.883645 6.098752 9.7633915e-39
-1.7567476 -0.80642492 5.6743531 9.7590671e-39
0.22473592 -0.77512842 5.4156713 9.2999008e-39
1.1146296 -0.80335778 5.5940638 8.009148e-39
-0.22848077 -0.78652078 5.6321983 8.0062655e-39
0.90441179 -0.7860809 5.6470408 1.1413199e-38
2.2541986 -0.8177278 5.9986115 1.1606952e-38
2.7821903 -0.76895559 5.6665945 1.1514757e-38
2.7140164 -0.79241496 5.9805331 9.2113023e-39
-3.0049553 -0.89219165 6.9365568 9.940929e-39
-2.1283801 -0.6926713 5.4059935 1.0492661e-38
-2.3733199 -0.66556579 5.5601468 1.1506094e-38
-4.9284744 -0.87935632 7.8042011 9.6719316e-39
0.3820281 -0.11771946 1.322565 1.2244029e-38
2.8703711 -0.67841923 5.9551039 1.2715455e-38
-2.1717443 -0.59411693 5.3894506 1.1318115e-38
-0.27348348 -0.58752561 5.4662027 9.6678972e-39
0.87555152 -0.59370327 5.6152053 1.1966722e-38
1.0131291 -0.58652717 5.6622877 1.1319913e-38
1.1071259 -0.57750416 5.6096854 9.2030123e-39
1.4359825 -0.49817088 4.8584538 7.4491359e-39
1.7593223 -0.54415947 5.3339505 1.1597939e-38
-1.7878513 -0.54913998 5.6640358 9.5725178e-39
2.9582345 -0.51952845 5.9291039 1.2067925e-38
-3.1210117 -0.50957346 6.0359402 9.8581165e-39
-1.4407238 -0.47572419 5.7332711 1.1133725e-38
0.79070729 -0.47340608 5.6498256 1.2148956e-38
0.1610337 -0.44225076 5.4142227 8.4683311e-39
3.4369218 -0.5270682 6.1797271 1.170059e-38
2.3687022 -0.46917912 5.881516 1.1700221e-38
3.1427646 -0.48176855 5.9769764 1.2438504e-38
-1.7549778 -0.43813846 5.7257624 1.0860011e-38
-1.5537758 -0.43770033 5.7187314 1.0677429e-38
1.0523148 -0.43415955 5.6605182 1.1229877e-38
-1.7092038 -0.4256978 5.7364206 1.1412831e-38
-1.8033221 -0.38642156 5.6001511 7.5434937e-39
-0.83599484 -0.38568273 5.473855 1.1778012e-38
-0.68189812 -0.37881297 5.5146375 1.1595427e-38
-0.30571839 -0.37458506 5.4793963 6.9052765e-39
0.53611028 -0.3570542 5.6340003 9.209866e-39
-2.9603159 -0.3631514 6.1774955 7.9227271e-39
3.2559049 -0.34197569 5.7341871 1.1239973e-38
-0.80917197 -0.30745915 5.400578 7.7303947e-39
0.80548781 -0.31109601 5.7745728 1.2424467e-38
-3.9549191 -0.28870806 6.1198354 9.9517554e-39
-1.9306258 -0.26532513 5.6562743 8.926424e-39
1.1476272 -0.26219121 5.6396375 1.067562e-38
-2.0919354 -0.25817227 5.9648876 9.3892e-39
2.7690549 -0.21574971 5.9341469 1.1331442e-38
3.1776574 -0.2064721 5.9932461 9.8566773e-39
-4.3254433 -0.16853668 6.2059698 9.1205514e-39
-2.238075 -0.16530035 5.6168675 9.3859602e-39
-0.63880175 -0.17066452 5.4860206 1.0491945e-38
2.4190078 -0.19337939 5.9546223 1.2436707e-38
-0.83748913 -0.15836991 5.466526 1.1593985e-38
-1.9915383 -0.12250791 5.799994 1.0949319e-38
-0.07486809 -0.1114734 5.3462076 1.7144783e-38
-3.4340255 -0.12300446 6.2022052 1.1424353e-38
-2.1454673 -0.10871846 5.4019852 1.0212847e-38
2.7395184 -0.11116845 5.9054513 7.0004079e-39
-3.5805082 -0.1065982 6.1725688 1.05964e-38
-1.8090827 -0.09168537 5.6571631 1.1323161e-38
0.50737166 -0.067336023 5.6131086 1.0034581e-38
-1.9637054 -0.047165014 5.7898297 1.1133713e-38
0.58733261 -0.052519768 5.6783619 9.6672414e-39
1.6661881 -0.05259674 5.4011593 1.1602629e-38
0.7936219 -0.02234727 5.6390123 1.1780526e-38
2.8103988 -0.037538204 5.8843694 1.1607675e-38
3.4235792 -0.035075646 5.8387885 1.1148129e-38
-1.930642 -0.029095335 5.7205381 1.0951125e-38
-1.4407591 -0.0068803569 5.7231121 1.0857842e-38
-0.061884299 -0.010731882 5.30902 9.5818827e-39
1.2949561 -0.021268733 5.6340151 1.1319545e-38
-1.1869218 0.0058105001 5.6592827 8.6527223e-39
-3.3858023 0.03984512 6.0942564 9.8573822e-39
-1.8319392 0.023205675 5.768311 4.6904542e-39
-0.75939655 0.028512828 5.4803791 1.1968884e-38
-0.036157671 0.034463998 5.3051677 7.461735e-39
1.3536646 0.04273941 5.6395445 8.7481662e-39
-0.14551096 0.061455499 5.2087359 4.323478e-39
0.0043610288 0.062566034 5.3491783 6.5347326e-39
-0.44705984 0.07545083 5.10356 5.6145741e-39
-2.260493 0.084520482 5.4787421 1.1230963e-38
-1.4290621 0.097647466 5.7398529 1.1135156e-38
0.23341039 0.088928699 5.4382749 1.2426255e-38
1.1379036 0.09264686 5.6357145 1.0582343e-38
-1.4142208 0.10854615 5.7006521 1.0766737e-38
0.13635737 0.11000685 5.4219689 1.003315e-38
-1.713752 0.13354543 5.7746668 8.4704947e-39
-0.96154898 0.12409697 5.4604807 1.0310097e-38
3.1914234 0.12992667 5.8974519 1.1422194e-38
-0.55670857 0.14883293 5.4321799 6.9939087e-39
2.1130679 0.18025979 5.9489365 1.1241055e-38
2.716572 0.18889868 5.9274297 1.1329996e-38
-3.7174053 0.22132321 6.2479153 8.0170807e-39
0.89196938 0.18994144 5.6365285 1.2148229e-38
2.5721574 0.19917335 5.8856754 7.5525027e-39
1.9482455 0.21980584 5.9300976 1.0409483e-38
2.5008135 0.23224564 5.9500976 1.059424e-38
3.8158975 0.32827795 7.8107605 1.1145971e-38
0.6245321 0.24896611 5.6130028 1.3624804e-38
1.1945394 0.25832126 5.5883584 1.2518454e-38
1.5830724 0.24122369 5.2781401 1.3074515e-38
2.1762958 0.27349696 5.9218011 9.8552298e-39
1.7990012 0.27149811 5.3266406 1.0223296e-38
-2.4072547 0.30468789 5.5490332 9.7507896e-39
-3.6357622 0.35909718 6.1253986 8.4766226e-39
-2.1086154 0.35408095 5.527524 1.1870923e-38
-0.040175453 0.12384658 1.4485707 1.2334434e-38
0.63132358 0.34488449 5.4332275 1.3439695e-38
0.79119927 0.35152343 5.5526228 1.3899949e-38
-1.0119877 0.35186091 5.3812494 1.2793601e-38
3.1096835 0.4027833 5.9085159 1.0132894e-38
-0.83525449 0.35574585 5.1821036 1.3441137e-38
2.6848278 0.43037477 5.9844389 1.2159419e-38
2.5237303 0.43027672 5.8743415 3.518348e-39
2.3907032 0.44538981 5.8835316 5.898075e-39
-0.31719938 0.39991167 5.1151476 1.1595778e-38
-4.3066783 0.53816098 6.2178183 9.0316054e-39
-4.0841131 0.51245266 5.9556637 8.9383336e-39
2.6033747 0.50583988 5.8838944 8.6624866e-39
-0.42398143 0.44906762 5.0789771 1.1969974e-38
0.14290158 0.45230764 5.1593823 1.2982686e-38
1.0231266 0.4437367 5.0757504 1.3166359e-38
-3.5215321 0.57337701 6.2129483 9.9495862e-39
-1.9355402 0.47808468 5.267004 1.1508626e-38
-1.6017773 0.46198183 5.1135945 1.2429512e-38
-0.85863107 0.48180643 5.1434846 1.2243676e-38
-1.4484637 0.4846521 5.1469512 1.2060724e-38
0.30598661 0.47920915 5.0905538 1.270538e-38
-1.1664517 0.50674284 5.1715698 9.1169515e-39
-0.55321258 0.49777088 5.1126184 9.6704882e-39
0.0067373468 0.50024682 5.1516948 1.0314772e-38
1.1674577 0.49260736 5.0784302 9.1180165e-39
3.1509652 0.57754117 6.0854383 1.1883536e-38
0.98032671 0.5218212 5.0814729 1.0681393e-38
-0.060414258 0.56222838 5.106195 1.2705377e-38
1.6438737 0.5541144 5.0439568 1.1874174e-38
0.53144962 0.56822866 5.0866284 1.2060364e-38
1.2452919 0.58057249 5.0687551 1.2703572e-38
2.8296018 0.65602827 5.7858524 1.1055571e-38
0.10548582 0.58852327 5.0961132 1.2797929e-38
3.0315273 0.70285338 5.8526578 1.1238522e-38
3.4486337 0.68382215 5.8158088 1.1699142e-38
-0.0067303316 0.63401318 5.115633 9.3899343e-39
1.3248324 0.61481887 5.028235 1.0591354e-38
-3.938096 0.7874679 6.2512469 1.105883e-38
1.7043804 0.63667589 5.0497327 9.7608762e-39
-0.57120615 0.7109161 5.124536 1.2800821e-38
2.4986053 0.81407124 5.8731194 1.2344869e-38
-0.69514406 0.72661763 5.0237994 1.2244752e-38
1.6599754 0.72443658 5.0255404 1.279685e-38
-0.61720437 0.74772143 5.1042857 1.104873e-38
-0.04074876 0.73959702 5.0647249 9.9463408e-39
3.2629077 0.86437631 5.8809342 1.1054855e-38
2.4653466 0.86876929 5.8489523 1.1334337e-38
3.0781562 0.86070353 5.8372612 1.1514751e-38
0.23476495 0.79509366 4.9816499 6.5376179e-39
2.6056461 0.92793936 5.8496375 1.1700598e-38
-1.2365041 0.81662768 5.015862 7.5481698e-39
-0.89539975 0.81950814 5.0174227 9.8512627e-39
-0.057349399 0.8054741 4.9769979 6.7220119e-39
-1.5586022 0.70241886 4.0950055 1.4458166e-38
2.3160713 0.9937585 5.892808 9.7659223e-39
0.68694276 0.72068053 4.2019997 1.4561917e-38
-0.48986727 1.0316585 5.8256564 1.2442496e-38
0.8406139 0.50793701 2.7948108 9.5732255e-39
3.446121 1.0358036 5.7256227 9.9474254e-39
1.6236919 0.95527691 5.0064068 1.0123529e-38
2.2537725 1.1572589 5.8215895 1.040986e-38
3.3808954 1.1910864 5.8273954 1.0594242e-38
-0.11734678 1.0416477 4.9897075 8.743825e-39
1.5166494 1.04608 5.0189095 1.0312255e-38
2.7170179 1.1999948 5.7991347 9.1202025e-39
2.8856194 1.2391284 5.8420873 9.303512e-39
2.2279634 1.2716885 5.8525028 1.0961227e-38
-0.44935551 0.92771095 4.2134008 6.9917479e-39
-0.7346195 0.80064642 3.4563489 1.0310439e-38
0.56532168 0.81406003 3.4768472 1.3167071e-38
2.7511644 1.4105452 5.87714 1.0688967e-38
-0.81545365 0.85421485 3.5082448 8.3804571e-39
3.244488 1.4136021 5.7580042 8.849012e-39
-0.70455277 0.88439155 3.4529331 9.576136e-39
2.3112686 1.485495 5.818253 1.0323062e-38
2.4332879 1.4800062 5.7884908 9.6784168e-39
3.4794493 1.4863709 5.7031217 1.1154252e-38
1.609946 1.3415833 4.9837089 1.1505389e-38
0.69436944 0.9809019 3.6049168 1.3628777e-38
-0.36424476 0.95321262 3.4418461 1.0312255e-38
2.4772263 1.5797762 5.6615005 9.9528232e-39
-0.54712605 0.9802286 3.4580805 1.1691944e-38
1.5272135 1.4004115 4.9639769 1.2065056e-38
2.6858835 1.6169243 5.6515255 1.1242846e-38
2.3163452 1.5862337 5.4080338 1.0688585e-38
-0.54133052 1.0377994 3.4514327 1.0862906e-38
3.1580107 1.6153924 5.4778643 1.1150999e-38
0.32163045 1.0474448 3.4458344 9.9467234e-39
-0.73173785 1.0668588 3.4729939 9.8548837e-39
0.71527779 1.1156545 3.620491 1.2249808e-38
1.5356021 1.5194855 4.8980899 1.1416799e-38
-0.57346511 1.1069689 3.4761863 1.1691581e-38
-0.13203844 1.0957905 3.4503229 1.0039272e-38
2.9294541 1.638871 5.1549792 8.6671263e-39
-0.8336364 1.1170063 3.4922304 9.5768549e-39
-0.26649797 1.1066837 3.44154 9.7612461e-39
-0.24245471 1.1147001 3.4280789 9.2091499e-39
-0.031105705 1.1494685 3.4349217 1.2890135e-38
1.5796659 1.6382914 4.879355 7.471097e-39
3.5303028 1.8711895 5.5683312 7.7462616e-39
2.9106433 1.6712605 4.8928237 8.0246351e-39
-0.41430518 1.3960201 3.8939555 1.4274512e-38
0.9026196 1.3313338 3.7052853 1.2891926e-38
0.73415589 -0.78609711 -2.3974228 6.9964296e-39
0.11929146 1.2508777 3.3647387 8.5623218e-39
0.53794312 1.2435944 3.3478975 9.3006029e-39
-0.87285346 1.2641032 3.387254 6.4443348e-39
-0.49051338 1.1973112 3.1780975 1.0222198e-38
-0.33763179 1.2609835 3.3721371 9.2084072e-39
0.050544888 1.2619262 3.3717721 1.0128924e-38
-2.2211199 1.5429419 4.0738268 6.8264269e-39
1.123744 1.4898179 3.9306672 7.284196e-39
-0.82359195 1.3034554 3.3758225 1.0032773e-38
-0.28985453 1.2976385 3.3648703 1.1322798e-38
0.97926772 1.4540691 3.7619331 9.02836e-39
-0.46688479 1.302654 3.3678424 1.1784493e-38
0.53154063 1.3026198 3.3580418 9.2051702e-39
0.098126829 1.3530383 3.36287 1.1783774e-38
-0.057148077 1.3418518 3.3252764 1.1600473e-38
-0.71352506 1.3967716 3.3750477 9.2087758e-39
0.54289705 1.3943392 3.3590269 7.7394121e-39
-1.2566903 1.4858482 3.4238737 7.2852863e-39
-0.034678742 1.367504 3.1611161 2.1484481e-38
0.06013738 1.3946849 3.2286906 8.758987e-39
-0.99250937 1.6044558 3.6734467 8.7593401e-39
-0.27733207 1.3514563 3.0918472 9.1270507e-39
-1.0428083 1.3860925 3.013804 6.6399126e-39
-0.33107772 -1.8239638 4.4130502 8.5594393e-39
-0.2000484 -2.2076073 5.3443985 8.4665248e-39
0.22407275 -1.2430376 2.9975009 5.5191387e-39
-1.5316844 -2.3687923 5.8553357 9.4907801e-39
-0.72872585 -2.176635 5.360734 9.5739528e-39
-0.30393723 -2.1623161 5.3414392 1.012137e-38
-0.099731453 -2.162024 5.3388171 9.2048171e-39
-0.07792227 -2.1169565 5.2305083 9.2980946e-39
0.12383642 -2.1581109 5.3277507 9.0218706e-39
-2.3155134 -2.5222592 6.2680211 1.2250877e-38
0.12798165 -2.1020067 5.3003683 1.0215005e-38
2.8497736 -2.3366895 5.9761348 1.1609113e-38
-3.4335008 -2.3680494 6.1475472 1.0869385e-38
-2.9760582 -2.3884938 6.2437444 1.133e-38
3.2786009 -2.4562309 6.3967514 1.1333251e-38
-1.6554506 -2.3031735 6.0807018 1.0777192e-38
2.8744924 -2.2879825 6.0228953 1.1241055e-38
2.2970006 -2.2513857 5.9405007 1.1147062e-38
-1.9846122 -2.247066 5.9914536 1.0683551e-38
0.1562953 -0.73984534 2.0380976 8.9278561e-39
-3.0334518 -2.2300305 6.1835942 8.4733744e-39
1.3633927 -2.133065 5.9995089 1.1977541e-38
2.2717068 -2.1718285 6.109118 1.1148857e-38
2.6112108 -2.1542768 6.0960665 8.3837067e-39
3.193368 -2.1680548 6.108057 1.0872638e-38
0.13976426 -1.831014 5.2674909 1.1505029e-38
-0.59918123 -1.8347142 5.3530364 3.9564919e-39
0.024013842 -1.8312039 5.3145156 4.1398056e-39
1.7733294 -2.051919 6.0679798 1.2252319e-38
-0.40199909 -1.8320708 5.4991884 6.5332906e-39
0.49903396 -1.8118377 5.4356556 4.6929794e-39
3.2965708 -2.0596361 6.1198826 1.1424365e-38
-1.6607121 -1.8425397 5.5489659 9.6603863e-39
-0.20407014 -1.8272141 5.4851904 6.440379e-39
-3.188113 -2.0115101 6.1087041 9.8548697e-39
-1.2551486 -1.8335925 5.5564704 1.0126413e-38
1.043442 -1.7884817 5.3455629 1.1873081e-38
3.0079958 -1.9792913 5.9960704 1.2345602e-38
-4.0641484 -2.0825665 6.4385228 1.1055215e-38
-2.6477225 -1.9357255 6.0109925 1.123708e-38
-4.3407888 -1.9382775 6.1871767 1.1239962e-38
-3.4689062 -1.9345534 6.1677804 1.0316562e-38
2.6686342 -1.8994002 6.0569673 9.6737266e-39
-4.1929836 -1.9042575 6.2438002 1.1053773e-38
-4.106472 -1.8684577 6.1388535 1.1331086e-38
-0.56400383 -1.6509826 5.4733415 1.1319913e-38
-4.1865029 -1.8116889 6.0542006 1.0502763e-38
-0.032912359 -1.6254517 5.4627924 1.0123159e-38
-3.2436383 -1.8994658 6.3870339 1.188282e-38
3.3727026 -1.8000669 6.0291767 1.1700954e-38
2.0819721 -1.7604411 6.0244975 1.133109e-38
-0.31225076 -1.5773042 5.4948158 6.0733887e-39
2.6103187 -1.7170275 5.988656 1.2806569e-38
0.35675567 -0.17650238 0.70195854 1.1331456e-38
-2.4902949 -1.7620336 6.2180367 1.0224012e-38
1.9063131 -1.6755052 5.9928851 1.1975735e-38
0.75804639 -1.4583188 5.2858171 7.3626912e-39
1.022413 -1.5572994 5.7015362 7.4545309e-39
1.5377923 -1.6337535 6.0348907 1.0316937e-38
-2.5607455 -1.6430879 6.1651654 8.3837025e-39
3.0338273 -1.6223717 6.1222043 9.5808065e-39
-1.3443167 -1.499843 5.705287 7.0882707e-39
0.71252334 -1.4724743 5.6035247 7.1801034e-39
1.8228304 -1.597041 6.0245481 9.3967684e-39
2.5570788 -1.5566261 5.9994774 6.816011e-39
2.749393 -1.4701433 5.9514198 1.1514757e-38
-1.3107095 -1.373153 5.7326694 1.0030614e-38
1.6044434 -0.9213199 3.8514171 1.1055585e-38
3.2420144 -1.42791 5.9456987 1.0593885e-38
-0.44313243 -1.3075266 5.5295568 8.9289379e-39
-0.1597164 -1.3004206 5.4899302 9.6675791e-39
-0.66566515 -1.2517067 5.4463077 1.1503947e-38
2.3544946 -1.3742901 5.9760084 1.1976103e-38
3.0633535 -1.3825654 6.0106492 1.280514e-38
-4.4622245 -1.4147018 6.2486744 1.0961583e-38
-0.069280997 -1.2363158 5.4551024 9.3002385e-39
0.63748384 -1.2844219 5.6941867 1.076746e-38
1.0769944 -1.3489287 6.0226884 1.2155807e-38
-2.4954162 -1.3138715 6.199748 1.1329996e-38
-1.5715528 -1.1416751 5.6561403 5.98047e-39
-0.70051354 -1.0996957 5.4791541 1.1596132e-38
0.68481469 -1.1486495 5.6898179 1.0585228e-38
1.9464395 -1.2058084 6.0232902 1.1423286e-38
-0.26536015 -1.0859637 5.5227652 1.0585228e-38
-3.9228976 -1.1929988 6.2552538 1.0686449e-38
-3.4495914 -1.1839161 6.164319 1.1422932e-38
-4.1713862 -1.1823336 6.2317481 1.1978264e-38
2.0973995 -1.1447949 5.9435396 1.1697703e-38
2.3698249 -1.1473098 5.9969711 1.1422205e-38
-1.5027435 -1.079201 5.7560678 7.5485216e-39
-4.2139034 -1.1140008 6.1118512 1.0040714e-38
-1.773523 -1.0144638 5.5331197 6.7223622e-39
1.1411031 -0.98824966 5.4112167 7.2715802e-39
0.88058597 -0.99791002 5.6634851 9.2033668e-39
-1.5312847 -0.99180055 5.7382159 1.0399749e-38
3.0192442 -1.0351709 5.975419 1.123889e-38
-0.30404881 -0.94436938 5.4857478 1.2437728e-38
-1.6402694 -0.92099136 5.3928828 6.163069e-39
-1.3025937 -0.95601183 5.671186 1.0952926e-38
0.56611431 -0.94266146 5.6303315 9.0251202e-39
-1.4588258 -0.90998363 5.569169 8.7409439e-39
3.0915744 -0.97344172 6.0218749 9.8570389e-39
-3.8793409 -0.94990784 6.08324 1.0688967e-38
1.7633474 -0.9311946 5.9237437 1.1606598e-38
-0.38151065 -0.84656829 5.4557824 7.0857484e-39
0.1724754 -0.81121933 5.3954434 9.1144222e-39
1.0378932 -0.85450608 5.6617961 1.0033127e-38
-4.2829742 -0.90284818 6.1374698 1.0227269e-38
-3.0841613 -0.90741855 6.2345262 9.7644761e-39
-0.66653496 -0.79893368 5.4977431 1.0400112e-38
2.203423 -0.8952831 6.034585 1.087011e-38
2.5010138 -0.89906877 6.0803285 1.0870829e-38
2.8430147 -0.86069196 5.9382386 1.1514757e-38
-0.20986374 -0.7774967 5.546701 7.6381991e-39
-2.5958264 -0.7776224 5.7118859 1.0777543e-38
1.5356441 -0.70876759 5.2922826 8.3696362e-39
1.6602492 -0.72118938 5.3881159 8.7384188e-39
3.3493392 -0.79624557 5.9094501 1.087011e-38
1.049522 -0.70088613 5.6439729 1.178017e-38
1.51484 -0.5816831 5.1706409 9.5689179e-39
2.7094676 -0.66187763 5.982821 1.0594604e-38
-4.2367334 -0.66326272 6.2889643 1.0502408e-38
2.4213178 -0.64187962 5.9431381 1.0777192e-38
0.65570515 -0.59334415 5.6487947 1.2058919e-38
-0.17795995 -0.57317007 5.5230384 1.8619165e-38
-0.70572984 -0.5450567 5.5208983 9.2048171e-39
3.1574373 -0.59549898 5.9941168 1.225448e-38
1.5502974 -0.50750726 5.3377213 1.0124967e-38
-2.1459129 -0.52074313 5.4253449 8.926424e-39
-1.1832993 -0.47592077 5.5626178 1.0952207e-38
-0.26784071 -0.46917489 5.425467 1.6035173e-38
2.3933434 -0.52013522 5.9624519 1.179242e-38
-1.7585258 -0.47473115 5.7303824 9.8480201e-39
1.7564921 -0.44617435 5.4907846 9.387042e-39
1.0915197 -0.46655607 5.6050839 9.292331e-39
0.67116898 -0.39226717 5.3191648 1.1781976e-38
0.95130235 -0.43165857 5.9008822 1.2611386e-38
1.503153 -0.40243629 5.3831172 3.0384915e-39
-3.6548438 -0.42626607 6.140955 9.6733553e-39
-2.1851733 -0.38288894 5.4701743 4.6947759e-39
0.95152116 -0.39479128 5.6457882 1.086542e-38
1.1890466 -0.38133454 5.6238384 9.3888454e-39
-1.1214392 -0.36659896 5.6468081 6.3471043e-39
-0.45697838 -0.30290598 5.5452151 4.1397944e-39
0.81072575 -0.29070887 5.5803685 1.4638601e-38
-3.5802476 -0.29427469 6.0994282 9.5804408e-39
1.1165012 -0.27777889 5.6208825 9.9409318e-39
-1.9196876 -0.26759595 5.6941967 8.190654e-39
2.82323 -0.28362516 6.2911258 1.0593521e-38
-1.6726844 -0.2426348 5.7371426 1.0489784e-38
0.58328223 -0.24244289 5.6700139 1.178017e-38
2.6539941 -0.24856485 5.701426 1.1607673e-38
2.1434956 -0.25544259 5.8853297 8.28863e-39
-2.1568835 -0.13241389 5.3440061 1.0583789e-38
0.54211426 0.077950083 -1.1508565 1.068355e-38
-1.1374689 -0.13325264 5.6427894 6.2581499e-39
-1.9359114 -0.11933421 5.6909041 1.0857845e-38
-1.4510498 -0.12054022 5.7133589 5.9797511e-39
-1.8086413 -0.088448554 5.7171307 1.1873809e-38
-3.8093138 -0.085036054 6.2912741 9.7680831e-39
-2.9663203 -0.083760165 6.0807867 6.0802438e-39
0.41763073 -0.073737025 5.621058 1.1780526e-38
0.3733443 -0.069506526 5.6481085 9.3870504e-39
2.1958873 -0.07735461 6.177772 1.1147411e-38
2.1503301 -0.074186668 5.9447708 1.1516193e-38
2.6727858 -0.057293691 5.9679055 1.0961577e-38
-0.95728707 -0.044310343 5.476738 1.0768895e-38
-0.74921739 -0.047788937 5.331706 1.1135522e-38
1.5401448 -0.012752268 5.4442034 8.8342283e-39
1.5837263 -0.011415754 5.4729176 9.387758e-39
2.8249032 -0.018794943 5.8354883 1.0685716e-38
0.5117687 -0.0054711876 5.7881894 1.0586673e-38
-3.7610962 0.022490149 6.0661006 1.0133615e-38
3.2740245 0.0011371737 5.8490057 1.2253761e-38
-1.3504736 0.029025277 5.7721148 7.9176824e-39
-3.754863 0.083813369 5.7352362 8.1089275e-39
0.95498753 0.091200717 5.644012 1.040626e-38
3.0369575 0.085752673 5.8929 1.2252319e-38
-0.024584016 0.093475595 5.386302 6.8995494e-39
1.8226423 0.087073736 5.6809616 1.0593521e-38
0.88811541 0.15749198 5.6316328 1.0127503e-38
2.8930142 0.19346441 6.2375932 9.8552214e-39
2.4648807 0.16913071 5.8735957 1.1883536e-38
1.07254 0.19286123 5.6413264 1.168833e-38
0.62395054 0.23310766 5.6561184 1.2610283e-38
-2.2936888 0.25244966 5.5731812 1.1596143e-38
-0.57630014 0.24229974 5.3684578 1.0491237e-38
-0.062510252 0.23552288 5.3304501 1.0677426e-38
-0.95066357 0.25100642 5.4822721 1.2794324e-38
-3.9682941 0.32396743 6.634212 8.0149241e-39
-2.0146379 0.26706803 5.4717488 1.2057121e-38
1.7874866 0.26211062 5.6081138 1.1508992e-38
0.2448355 0.27925828 5.3999276 1.4453846e-38
-1.7889234 0.32999542 5.6606464 9.6611135e-39
-1.9371881 0.32595187 5.577157 1.2795764e-38
2.7852159 0.33192712 5.9017291 5.8011374e-39
-0.86781335 0.35203287 5.1741424 1.3899593e-38
-3.466928 0.44838056 6.0867267 9.4886081e-39
2.6310647 0.42660803 5.7985187 1.2621456e-38
3.1632841 0.45015585 5.7887683 1.1605862e-38
-3.9664445 0.5132634 6.0887437 8.8457736e-39
-3.7486429 0.53026056 6.2530766 6.8185376e-39
0.28243819 0.27984121 3.2490356 1.3257825e-38
0.30179179 0.45813724 5.093154 1.2245842e-38
2.94994 0.57504916 5.9259024 1.0224367e-38
3.1552866 0.56520748 5.8377085 1.2159756e-38
0.20928279 0.53967625 5.0807443 9.5786429e-39
0.40744606 0.55889344 5.118546 1.0406614e-38
0.77892756 0.54102856 5.0801582 8.4719338e-39
0.97300881 0.53730083 5.0285854 1.123529e-38
-1.0899323 0.58055335 5.1628733 1.2058566e-38
-0.63799912 0.57340974 5.1264858 1.2149319e-38
0.086279057 0.5701074 5.1066084 1.1693383e-38
1.085075 0.5634672 5.0719218 1.3071999e-38
-1.6864666 0.5938285 5.1892095 1.2335869e-38
-0.28079534 0.58651662 5.1215243 1.0130027e-38
2.367089 0.65837651 5.8607955 1.1606947e-38
2.560535 0.69396275 5.843287 1.2253395e-38
-0.53728592 0.6417833 5.131772 8.6530881e-39
2.2244449 0.71983051 5.8480535 9.9488702e-39
2.9503191 0.73075688 5.9880753 1.0409483e-38
-0.48192066 0.65354335 5.1100159 1.1692297e-38
0.60944855 0.64593667 5.0756478 9.3009714e-39
-1.7456297 0.66321266 5.1260962 9.0232999e-39
-0.057063717 0.68373978 5.1165805 1.0035668e-38
3.0553067 0.71995789 5.4284406 1.1610189e-38
3.0220382 0.79291826 5.8451624 1.2715461e-38
0.19671582 0.72883195 5.1074791 1.307416e-38
-1.3450987 0.7452029 5.1403193 1.2426632e-38
-0.83087003 1.0730453 7.6637845 1.1599748e-38
2.8756099 0.86149472 5.8800297 1.0690037e-38
-0.62452096 0.80938536 5.0048952 8.5626847e-39
-4.0460472 1.0078987 6.094481 8.5713447e-39
-3.8861239 0.99787402 6.0944052 7.8337811e-39
-0.27600923 0.87571657 4.978549 8.7590094e-39
-3.3506663 1.1283588 6.1341596 7.1858669e-39
1.5380616 0.92263895 5.0216022 8.1006164e-39
2.7725916 1.0715404 5.8459477 1.096482e-38
-1.5081632 0.80596095 4.2608047 7.730029e-39
2.5144284 1.1169145 5.8712783 1.1791341e-38
-3.5229404 1.2024927 6.1529284 8.2922313e-39
-2.0422969 1.1343358 5.8085141 5.8890002e-39
0.92002678 0.74783838 3.8045838 1.1785569e-38
-4.2727122 1.2142737 6.1206036 9.8566717e-39
-0.5859381 1.1667637 5.8983665 8.8342171e-39
-0.032775518 0.75887501 3.8087583 9.1082915e-39
2.7093313 1.1181133 5.6929269 9.3956964e-39
-2.4347322 1.344716 6.8263879 6.9960667e-39
2.7033875 1.1310748 5.681541 1.06868e-38
-0.4270511 0.87204105 4.1250591 9.4799537e-39
2.6442311 1.259405 5.8591781 9.9506624e-39
3.0215912 1.2582444 5.8495297 1.1702385e-38
3.0923667 1.2080529 5.5536098 1.0041069e-38
1.6613986 1.1063586 4.998096 9.2980946e-39
2.3919487 1.3024762 5.8704848 1.1607327e-38
2.3893566 1.4153534 6.1345696 1.1981138e-38
2.6058345 1.3508068 5.8418918 9.0297963e-39
2.3156669 1.3512716 5.817359 1.1979335e-38
2.2513671 1.2931894 5.5397248 8.8414352e-39
2.2194176 1.3919951 5.8714914 1.0323797e-38
2.3984156 1.4697587 6.2082634 1.0045757e-38
-4.0661278 1.5236231 6.2452908 6.263203e-39
1.5653082 1.2305278 5.0103579 9.299898e-39
2.2486768 1.4753828 5.9106278 7.9288578e-39
0.16970102 0.30894259 1.0031112 1.3445104e-38
3.1273415 1.4824587 5.7037454 9.9557253e-39
3.6030865 1.4684695 5.6927819 1.3361915e-38
3.0476048 1.543309 5.7344503 1.0047554e-38
-0.41083133 0.93781704 3.3577418 1.0221141e-38
-0.19927286 0.95017362 3.4468615 1.067635e-38
2.7013524 1.5484754 5.6298513 1.0228694e-38
-1.0307022 0.99990684 3.5674546 7.1819083e-39
-0.78069919 0.96712697 3.4561858 1.1137331e-38
-0.66170514 0.96506941 3.4525509 1.1879218e-38
-0.41127408 0.94251889 3.3577206 1.2336599e-38
-0.85065746 0.97463983 3.4487443 1.0769622e-38
-1.195513 1.0691426 3.6851704 1.0034215e-38
3.0262187 1.625746 5.5973926 1.170347e-38
2.7918601 1.6475317 5.6251144 1.142724e-38
3.1187913 1.6087043 5.4751496 1.0965536e-38
3.5432329 1.6368926 5.5796857 1.5312126e-38
0.22755034 1.0265298 3.466104 1.0222223e-38
3.3820016 1.6522586 5.6029344 1.5218499e-38
-2.2919459 1.3286781 4.3273029 6.3575454e-39
-0.95881975 1.0513446 3.3764682 7.7336401e-39
0.24096319 1.0740037 3.4442334 1.2246927e-38
-0.449435 1.0874369 3.4737468 1.1694829e-38
2.6256092 1.811676 5.82271 6.9143317e-39
-1.5028676 1.2465067 3.9458418 3.5916737e-39
0.30235997 1.1015757 3.4468312 1.0221505e-38
